3.135886720000000127e-01 -1.417112229999999973e-01 -2.629448599999999886e-02
-3.178948399999999980e-02 3.807890099999999833e-02 1.318739300000000038e-02
-3.047544500000000031e-02 1.096144780000000013e-01 1.653129600000000088e-02
1.141802970000000000e-01 -4.346833700000000272e-02 1.853462999999999986e-02
2.057963030000000137e-01 3.137055999999999872e-02 1.924154700000000121e-02
1.347293370000000046e-01 1.936591460000000042e-01 5.357070600000000266e-02
1.042680990000000030e-01 -4.247237799999999813e-02 1.988294499999999909e-02
1.905573909999999926e-01 -3.996046999999999967e-03 1.311626800000000037e-02
1.973930240000000003e-01 6.586683999999999768e-03 1.919140000000000082e-02
2.915015750000000128e-01 -2.017377760000000075e-01 -2.349895200000000003e-02
1.429817240000000045e-01 -4.105852799999999692e-02 1.984786900000000062e-02
6.437495499999999760e-02 2.165113760000000054e-01 3.647715499999999722e-02
-1.202559069999999952e-01 3.331825939999999986e-01 -2.655527300000000077e-02
-4.689385399999999871e-02 3.107453479999999768e-01 -4.358024299999999768e-02
-1.060551789999999994e-01 3.488895960000000240e-01 -2.828460600000000033e-02
1.568443860000000023e-01 -3.589420000000000111e-02 1.540490899999999962e-02
1.980502829999999936e-01 9.296851400000000210e-02 3.677977100000000277e-02
-5.424898200000000115e-02 2.843973060000000164e-01 -4.398958599999999719e-02
2.639957689999999912e-01 -1.814276250000000090e-01 -2.506511800000000081e-02
5.365289000000000169e-02 2.151254119999999881e-01 3.349821199999999943e-02
-4.568403099999999994e-02 3.004614549999999884e-01 -4.176824800000000087e-02
8.515156200000000009e-02 -3.997719799999999851e-02 2.145034300000000019e-02
-1.143203220000000020e-01 3.431951859999999854e-01 -2.593288499999999927e-02
4.345829699999999990e-02 2.131396899999999928e-01 3.253354499999999705e-02
-1.012632269999999973e-01 2.910657139999999754e-01 -3.354585100000000153e-02
1.294876620000000034e-01 -4.284061900000000339e-02 2.108668899999999874e-02
-6.085725599999999846e-02 3.413351510000000033e-01 -3.316930299999999721e-02
1.528070490000000003e-01 1.600592369999999931e-01 5.775466600000000311e-02
-1.213737480000000035e-01 3.182129519999999934e-01 -3.311178299999999880e-02
2.832815960000000244e-01 -1.967826229999999899e-01 -2.006021599999999877e-02
1.693872519999999882e-01 -2.730199499999999904e-02 1.637333800000000117e-02
-3.600919799999999921e-02 5.394670700000000346e-02 1.593438999999999967e-02
3.794261000000000161e-03 -1.584540799999999833e-02 1.356188699999999990e-02
-2.703788799999999951e-02 1.368823740000000011e-01 1.959436999999999984e-02
2.028179870000000051e-01 1.949789500000000120e-02 1.969893799999999917e-02
3.275507899999999945e-02 2.098454800000000009e-01 3.175580199999999964e-02
-3.680804700000000346e-02 6.701199900000000265e-02 1.933869599999999897e-02
2.308918000000000081e-03 1.932064709999999907e-01 2.533140299999999887e-02
-6.950929100000000083e-02 2.782428479999999871e-01 -4.246131100000000158e-02
1.081040200000000021e-02 1.996500009999999936e-01 2.912429299999999902e-02
2.989397529999999747e-01 -1.959713140000000076e-01 -1.746208900000000008e-02
-4.567236799999999791e-02 3.145743990000000045e-01 -4.025460000000000149e-02
-7.457485199999999703e-02 2.769242809999999944e-01 -3.766414600000000251e-02
-1.145953009999999966e-01 3.388597999999999888e-01 -2.035169300000000056e-02
-8.404144199999999398e-02 3.506985790000000103e-01 -2.679452400000000012e-02
-1.148698300000000061e-01 3.079458769999999790e-01 -2.418118000000000004e-02
1.545694360000000045e-01 1.442733029999999916e-01 5.983288999999999969e-02
3.140092689999999798e-01 -1.438337889999999897e-01 -1.680426800000000068e-02
2.212327899999999917e-02 2.062241240000000086e-01 3.423921800000000182e-02
2.093756740000000116e-01 5.233095200000000002e-02 2.856358399999999950e-02
-6.184819099999999681e-02 2.777162459999999999e-01 -3.971443599999999879e-02
-9.132104600000000294e-02 3.502397890000000236e-01 -2.376117300000000002e-02
5.943257500000000138e-02 -3.738696200000000275e-02 2.427864199999999958e-02
1.563558140000000096e-01 -3.638162200000000235e-02 2.334742399999999857e-02
1.579175469999999915e-01 1.357276849999999868e-01 5.826423700000000344e-02
3.073015680000000249e-01 -1.873366929999999986e-01 -1.896550600000000003e-02
2.519500650000000008e-01 -1.585032439999999876e-01 -2.692376700000000123e-02
-4.588318899999999784e-02 2.891263310000000142e-01 -3.832126599999999966e-02
-1.804262699999999858e-02 1.663851580000000052e-01 2.467379800000000026e-02
2.572999570000000236e-01 -1.178949589999999936e-01 -3.177738699999999722e-02
-3.548315199999999697e-02 8.199083299999999908e-02 2.100522299999999995e-02
2.083141659999999951e-01 7.716882799999999487e-02 4.067641400000000101e-02
2.706062399999999979e-01 -1.094520189999999976e-01 -3.106582199999999988e-02
1.451660929999999960e-01 1.827593750000000017e-01 6.122290500000000107e-02
-8.533517699999999817e-02 2.795647700000000180e-01 -3.506505399999999828e-02
3.081110479999999985e-01 -1.810509879999999960e-01 -1.366516000000000085e-02
2.634386559999999933e-01 -1.068853159999999941e-01 -2.668444000000000024e-02
-4.326436699999999802e-02 3.102078269999999915e-01 -3.676841000000000137e-02
2.097325009999999879e-01 6.767770200000000624e-02 3.678787900000000249e-02
3.120931419999999901e-01 -1.726076830000000117e-01 -1.356217300000000028e-02
-6.098847200000000190e-02 3.409089650000000082e-01 -2.173651399999999845e-02
-7.585356799999999622e-02 3.464190280000000177e-01 -1.628051000000000151e-02
2.761473959999999894e-01 -1.908606959999999964e-01 -1.643628800000000029e-02
1.915322469999999888e-01 1.092778719999999981e-01 5.659148600000000334e-02
-1.027876340000000027e-01 2.923632119999999834e-01 -2.149171500000000151e-02
-4.587662299999999832e-02 3.204829820000000273e-01 -3.545471399999999829e-02
-4.107751099999999711e-02 3.016050940000000180e-01 -3.394131100000000179e-02
-4.895295699999999833e-02 3.279406739999999876e-01 -3.187284700000000276e-02
1.298071110000000028e-01 1.993680600000000136e-01 5.993289000000000255e-02
-1.208683329999999945e-01 3.236429080000000069e-01 -2.635844899999999907e-02
-1.077560560000000028e-01 2.991593949999999946e-01 -1.763707800000000048e-02
1.173837880000000028e-01 -4.295664800000000005e-02 2.618585500000000094e-02
2.507561859999999920e-01 -1.317806260000000118e-01 -3.249540900000000287e-02
2.980265020000000264e-01 -1.169191049999999954e-01 -2.433999200000000127e-02
5.113214099999999901e-02 2.161330049999999892e-01 4.357584800000000036e-02
2.650042089999999906e-01 -1.818464009999999909e-01 -1.897070099999999954e-02
2.108150010000000019e-01 4.283806600000000103e-02 3.479260800000000264e-02
-4.294535800000000292e-02 2.948165349999999907e-01 -3.755245399999999900e-02
9.582098099999999952e-02 -4.190315499999999749e-02 2.692543199999999914e-02
2.504874229999999868e-01 -1.212663429999999987e-01 -2.789571199999999959e-02
1.512043939999999920e-01 1.731130459999999927e-01 6.449113500000000498e-02
-4.988864800000000072e-02 2.814363480000000028e-01 -3.716660900000000323e-02
-1.188527969999999961e-01 3.281700350000000266e-01 -2.149379300000000062e-02
1.375056550000000044e-01 -4.195357899999999779e-02 2.918109099999999928e-02
7.897018499999999830e-02 2.188873600000000030e-01 5.019739699999999777e-02
3.158887690000000137e-01 -1.622333860000000072e-01 -1.814345300000000036e-02
2.922852759999999828e-01 -1.972081559999999956e-01 -1.640882299999999946e-02
2.899313499999999766e-01 -1.091436800000000068e-01 -2.329633799999999977e-02
1.791896619999999996e-01 -1.864857099999999920e-02 2.346252700000000038e-02
-1.084906419999999982e-01 3.460278359999999775e-01 -2.299763599999999839e-02
-8.982867899999999461e-02 2.814068929999999913e-01 -2.665081600000000078e-02
-5.283030500000000101e-02 3.342486929999999856e-01 -2.687188299999999919e-02
1.667163279999999970e-01 1.270464079999999996e-01 5.805124500000000132e-02
-7.641969399999999635e-02 2.742760850000000028e-01 -2.940455999999999973e-02
1.882650019999999869e-01 -7.865026000000000655e-03 2.344759999999999900e-02
-1.180251580000000050e-01 3.169038820000000256e-01 -2.241421899999999912e-02
-6.665834599999999333e-02 2.732037099999999885e-01 -3.271750100000000300e-02
-3.060393299999999983e-02 3.484977100000000161e-02 2.000896900000000145e-02
2.473121889999999878e-01 -1.450643940000000132e-01 -2.447593400000000127e-02
-4.175733200000000117e-02 3.136838909999999925e-01 -3.090333400000000105e-02
2.123467950000000048e-01 5.778655299999999745e-02 4.051129500000000272e-02
1.713650949999999951e-01 -2.700134800000000140e-02 2.819463900000000051e-02
2.088035990000000064e-01 3.287046600000000096e-02 3.258633300000000205e-02
2.046242460000000096e-01 9.311197400000000013e-02 5.339685200000000159e-02
2.011362590000000117e-01 1.140266399999999986e-02 2.963292600000000040e-02
3.008234189999999808e-01 -1.900592329999999941e-01 -1.308971700000000071e-02
-5.354695300000000130e-02 2.747897249999999847e-01 -3.376550100000000332e-02
4.260172500000000001e-02 -3.512893400000000055e-02 2.251921800000000057e-02
6.492458099999999510e-02 2.182771279999999869e-01 4.723257499999999887e-02
1.985770279999999888e-01 1.008587420000000012e-01 5.337625199999999903e-02
2.064445950000000085e-01 2.212207600000000093e-02 3.551821299999999987e-02
-1.329959699999999981e-02 1.761363810000000085e-01 3.379658900000000188e-02
-1.967799799999999863e-02 1.437822499999999969e-02 1.933856600000000148e-02
1.425896500000000018e-02 2.039953670000000108e-01 4.100348899999999713e-02
1.644549730000000043e-01 -3.179460199999999820e-02 2.710708400000000004e-02
7.622446400000000566e-02 -4.051957700000000107e-02 3.129904199999999914e-02
1.730692869999999883e-01 1.281576030000000088e-01 6.872835700000000381e-02
1.601359260000000118e-01 1.432282779999999867e-01 6.977595400000000114e-02
2.578758389999999956e-01 -1.718896900000000116e-01 -1.765276699999999976e-02
4.392770000000000160e-04 1.938469740000000052e-01 3.707088499999999787e-02
-7.625059000000000003e-03 -3.155139999999999746e-04 1.812354199999999943e-02
1.218441539999999962e-01 2.051935739999999897e-01 5.891191400000000272e-02
-6.363472000000000225e-03 1.857608169999999947e-01 3.249403499999999750e-02
2.461221849999999933e-01 -1.328341289999999952e-01 -2.528164899999999979e-02
-7.059087000000000001e-02 3.460681030000000158e-01 -2.240921599999999916e-02
1.944650009999999984e-01 -1.270777999999999968e-03 3.068698099999999859e-02
-1.006618900000000039e-01 3.461141309999999915e-01 -1.624060600000000118e-02
3.031185739999999740e-01 -1.182514880000000018e-01 -1.109680499999999952e-02
1.399787989999999871e-01 1.897576360000000073e-01 6.313093499999999914e-02
-1.152623300000000031e-02 4.833483999999999871e-03 2.545259100000000010e-02
2.823801619999999901e-01 -1.937011939999999932e-01 -1.419294999999999932e-02
-3.466711900000000318e-02 4.755449300000000323e-02 2.074662600000000065e-02
-3.347721499999999767e-02 9.677473300000000167e-02 2.324618100000000118e-02
2.749766189999999777e-01 -1.038864089999999990e-01 -2.562033299999999861e-02
2.087033550000000071e-01 8.410769499999999621e-02 5.129132000000000136e-02
6.406580000000000261e-03 -1.854226600000000169e-02 2.053429999999999839e-02
2.805263649999999997e-01 -1.013148019999999955e-01 -1.960956700000000136e-02
-2.101483300000000012e-02 1.605829609999999963e-01 3.350083100000000175e-02
-1.087452440000000048e-01 3.429812059999999829e-01 -1.708825799999999853e-02
-9.272610600000000258e-02 3.471574099999999996e-01 -1.455865599999999968e-02
2.524591700000000105e-01 -1.622827279999999872e-01 -1.882324499999999887e-02
1.505342480000000094e-01 -3.863469600000000309e-02 3.082957999999999879e-02
-2.604083499999999829e-02 2.446556999999999898e-02 1.878110499999999933e-02
1.851680600000000024e-02 -2.721245699999999892e-02 2.211818700000000096e-02
2.941038180000000168e-01 -1.930335340000000066e-01 -1.077330200000000023e-02
-8.361656600000000328e-02 3.477114259999999901e-01 -1.553879700000000003e-02
-4.391397100000000303e-02 3.226888279999999831e-01 -2.330771800000000157e-02
2.976499470000000258e-01 -1.123155329999999952e-01 -1.463599900000000023e-02
9.458146300000000450e-02 2.183571109999999926e-01 5.878538999999999987e-02
1.874236760000000113e-01 -1.165815800000000006e-02 3.299253500000000339e-02
3.128404169999999818e-01 -1.618489750000000060e-01 -8.785777999999999296e-03
3.100070099999999856e-02 -3.257620399999999750e-02 2.564803699999999853e-02
-2.681951399999999916e-02 1.422321239999999876e-01 3.137124200000000057e-02
-3.889521700000000276e-02 2.923918420000000129e-01 -2.917047500000000126e-02
-3.008003600000000097e-02 1.241508699999999965e-01 2.659265800000000166e-02
3.131243389999999738e-01 -1.462206269999999919e-01 -8.989161000000000720e-03
-4.723947700000000194e-02 3.293804619999999850e-01 -1.649143800000000062e-02
-1.152112660000000066e-01 3.347156580000000270e-01 -1.749743999999999952e-02
3.084834619999999861e-01 -1.288159160000000025e-01 -1.365585300000000078e-02
-8.065611400000000097e-02 2.746298999999999824e-01 -2.128961099999999995e-02
1.236580570000000018e-01 -4.303941199999999911e-02 3.336478500000000097e-02
-3.689833000000000002e-02 3.004609360000000118e-01 -2.598601400000000172e-02
-1.118014499999999967e-01 3.084814149999999811e-01 -1.318017600000000004e-02
2.013880140000000041e-01 6.036717999999999945e-03 4.213587800000000161e-02
2.853984800000000099e-01 -1.926216970000000084e-01 -1.034220400000000067e-02
2.862157149999999817e-01 -9.979331199999999513e-02 -1.095035200000000000e-02
1.561212190000000055e-01 1.671129749999999969e-01 7.235292799999999691e-02
4.942501900000000059e-02 -3.717180400000000273e-02 2.976472800000000071e-02
-4.346344800000000175e-02 2.819008239999999943e-01 -3.073036100000000118e-02
-9.634627699999999406e-02 2.860277070000000199e-01 -1.992332900000000004e-02
3.845412899999999662e-02 2.137017119999999881e-01 4.410118700000000003e-02
2.876483459999999992e-01 -1.891898569999999891e-01 -4.110967999999999567e-03
1.584489849999999866e-01 -3.574991300000000122e-02 3.431935800000000120e-02
2.678107220000000011e-01 -9.789043199999999945e-02 -2.064228699999999875e-02
-3.675096700000000244e-02 7.729433199999999338e-02 2.732530099999999976e-02
1.771459089999999903e-01 -2.371476700000000118e-02 3.616581099999999910e-02
-1.139736809999999934e-01 3.286880970000000124e-01 -1.175354099999999929e-02
2.435209449999999887e-01 -1.214650169999999946e-01 -1.932162600000000147e-02
-3.700211099999999725e-02 6.117437900000000095e-02 2.567126700000000109e-02
1.174679700000000049e-01 2.089141710000000096e-01 6.648734900000000114e-02
1.024597309999999983e-01 -4.316952000000000289e-02 3.354061500000000279e-02
2.478943190000000019e-01 -1.524832929999999920e-01 -1.584106000000000056e-02
-3.892096899999999970e-02 3.112020409999999848e-01 -2.441284100000000110e-02
1.660839739999999953e-01 1.433439469999999993e-01 8.180384899999999793e-02
-2.989021000000000039e-02 1.333603590000000116e-01 3.764799700000000249e-02
-3.281621299999999686e-02 1.111708079999999960e-01 3.179480600000000184e-02
2.711134880000000136e-01 -1.853571639999999909e-01 -1.044739400000000047e-02
2.157507999999999926e-01 6.399045700000000059e-02 5.872067400000000048e-02
3.055769520000000128e-01 -1.700392400000000082e-01 1.566790000000000088e-04
1.077683190000000013e-01 2.139263560000000119e-01 6.404366799999999804e-02
-1.089679890000000012e-01 3.379110710000000073e-01 -1.069232500000000079e-02
1.366336139999999866e-01 1.944866150000000016e-01 7.862689900000000010e-02
2.480875019999999875e-01 -1.088279830000000031e-01 -1.807663899999999851e-02
-1.149508179999999963e-01 3.177278940000000107e-01 -1.234153600000000017e-02
5.082232300000000258e-02 2.175170439999999927e-01 6.419750600000000140e-02
1.431701690000000138e-01 -4.126542600000000088e-02 3.728727600000000114e-02
2.572439639999999916e-01 -1.029231389999999968e-01 -2.059716500000000061e-02
2.927339050000000165e-01 -1.853070029999999979e-01 -3.591059999999999868e-04
3.030556480000000108e-01 -1.790370320000000126e-01 -4.171997999999999679e-03
-6.263950599999999758e-02 2.677676970000000267e-01 -2.525972300000000129e-02
1.713709569999999904e-01 1.349906549999999872e-01 7.774036199999999341e-02
-3.422590699999999986e-02 4.596525700000000242e-02 3.149300000000000016e-02
6.196120199999999995e-02 2.189975439999999884e-01 6.178567399999999876e-02
2.125853829999999889e-01 7.465138100000000276e-02 5.450274799999999670e-02
-3.554631199999999658e-02 5.121392000000000305e-02 2.775733199999999914e-02
-2.878086200000000081e-02 3.137061599999999700e-02 2.590215499999999962e-02
3.103174340000000031e-01 -1.495088970000000017e-01 1.718719999999999970e-03
6.510483000000000242e-02 -4.018975999999999799e-02 3.556730799999999887e-02
1.593753410000000037e-01 1.536436619999999864e-01 7.524793300000000296e-02
8.714390099999999584e-02 -4.288514999999999688e-02 4.007549700000000159e-02
2.766358959999999922e-01 -9.540804499999999688e-02 -1.356971499999999956e-02
-6.876027999999999307e-02 3.432181630000000205e-01 -1.173343200000000024e-02
5.849207000000000364e-03 1.995176039999999873e-01 4.447692799999999891e-02
8.421185400000000265e-02 2.197216509999999901e-01 6.631712700000000349e-02
2.779008999999999993e-02 2.116252909999999932e-01 4.956191900000000289e-02
3.081910119999999864e-01 -1.637966110000000086e-01 4.726010000000000107e-04
-8.658978000000000508e-02 3.441076670000000060e-01 -5.193668000000000243e-03
2.626013959999999869e-01 -1.763088820000000001e-01 -8.086551000000000849e-03
-3.592120900000000255e-02 3.117068060000000029e-01 -1.796172000000000046e-02
2.108674140000000030e-01 2.893964300000000101e-02 4.768470699999999979e-02
-3.565785900000000008e-02 2.886926000000000214e-01 -2.475388099999999841e-02
1.278768339999999948e-01 -4.436170899999999917e-02 4.403734699999999752e-02
-3.619012900000000144e-02 9.191881799999999936e-02 3.461911899999999681e-02
6.933764000000000247e-03 -1.876431500000000016e-02 2.718033799999999833e-02
1.487110580000000071e-01 1.813293059999999957e-01 7.691235600000000117e-02
1.428055030000000003e-01 1.882120260000000045e-01 7.770003600000000010e-02
-4.673708900000000249e-02 2.712448290000000206e-01 -2.599372100000000088e-02
2.511626430000000187e-01 -1.578463840000000062e-01 -5.272971000000000429e-03
-3.768485199999999785e-02 7.336952200000000646e-02 3.261690700000000054e-02
1.237256149999999971e-01 2.031623029999999885e-01 8.175041900000000472e-02
2.943369570000000102e-01 -1.050762999999999975e-01 -4.898089999999999909e-03
-1.102431509999999976e-01 3.104335109999999953e-01 -5.834152999999999908e-03
1.514569430000000105e-01 -3.984541700000000103e-02 4.300217199999999823e-02
3.952475099999999686e-02 -3.613723600000000313e-02 3.505667199999999706e-02
2.724471780000000121e-01 -1.773929929999999988e-01 7.632100999999999642e-03
-5.513742099999999896e-02 2.689743829999999836e-01 -2.632190200000000119e-02
-1.116119710000000043e-01 3.188543389999999866e-01 -4.271552999999999982e-03
2.156540849999999954e-01 5.332996400000000053e-02 5.324686099999999950e-02
-6.877331999999999890e-02 2.679865289999999733e-01 -1.985109499999999916e-02
2.976245659999999793e-01 -1.814659839999999968e-01 -6.624699999999999643e-04
-1.031190730000000055e-01 3.407834479999999888e-01 -7.139266000000000015e-03
-9.647472399999999781e-02 3.434382759999999868e-01 -7.313753999999999568e-03
-4.446420899999999760e-02 3.277797829999999912e-01 -2.572537000000000174e-03
2.563647740000000175e-01 -1.673576920000000023e-01 -6.942168999999999771e-03
9.971702799999999922e-02 -4.441460900000000073e-02 4.258967100000000255e-02
3.087897310000000117e-01 -1.306467649999999980e-01 -3.292615000000000038e-03
2.684744219999999904e-01 -9.198935299999999593e-02 -1.374402299999999931e-02
-3.896980800000000161e-02 2.764268819999999849e-01 -2.390704199999999988e-02
3.085767700000000002e-01 -1.333031590000000044e-01 5.259673000000000299e-03
-9.189904000000000475e-03 3.296828999999999819e-03 3.220020500000000258e-02
1.396881150000000016e-01 -4.316852599999999873e-02 4.723022400000000121e-02
1.967000899999999941e-01 1.090147290000000047e-01 7.186758999999999509e-02
-2.647551100000000018e-02 2.752846399999999902e-02 2.975351199999999932e-02
-1.043087200000000075e-02 1.819305290000000075e-01 4.345925700000000114e-02
2.435134260000000050e-01 -1.392299589999999865e-01 -1.468705799999999936e-02
-3.770912500000000306e-02 3.184949209999999864e-01 -1.095342699999999996e-02
-1.039263770000000003e-01 2.981885550000000218e-01 -6.623997000000000392e-03
4.375055700000000242e-02 2.159016470000000021e-01 5.400145499999999682e-02
-3.308979699999999718e-02 2.997753180000000128e-01 -2.031573999999999880e-02
1.844281700000000024e-01 -1.789285700000000159e-02 4.192303199999999896e-02
2.592433009999999816e-01 -9.332358799999999899e-02 -1.463722299999999955e-02
1.835513149999999927e-01 1.209607719999999942e-01 6.968633700000000097e-02
7.303303699999999510e-02 2.200168220000000008e-01 6.499207099999999848e-02
1.586836879999999894e-01 1.631537449999999889e-01 7.878615199999999819e-02
2.148729149999999977e-01 4.235409999999999869e-02 5.423397199999999835e-02
3.038512600000000119e-01 -1.185832059999999966e-01 1.788408999999999919e-03
2.411539990000000078e-01 -1.285875439999999981e-01 -1.224232899999999971e-02
1.703461009999999998e-01 -3.031244799999999878e-02 4.244618900000000222e-02
1.638078789999999896e-01 -3.510568199999999917e-02 4.578565899999999939e-02
-2.284871399999999914e-02 1.605895410000000023e-01 4.912845700000000038e-02
-8.937125899999999457e-02 2.800225390000000147e-01 -1.467265499999999973e-02
-7.886628999999999168e-03 1.870141610000000121e-01 5.232903900000000080e-02
1.138053809999999971e-01 -4.471913000000000277e-02 4.104805999999999733e-02
1.013585109999999984e-01 2.153379360000000076e-01 7.585113200000000167e-02
-1.791426100000000077e-02 1.705168830000000080e-01 4.583810099999999915e-02
-1.929983500000000129e-02 1.631881699999999935e-02 2.923192000000000151e-02
2.075255109999999958e-01 9.209470000000000156e-02 6.968240100000000492e-02
-3.243785400000000207e-02 1.230470069999999999e-01 4.083090799999999909e-02
2.016436200000000165e-02 2.088724499999999873e-01 5.476623700000000233e-02
2.748911580000000243e-01 -1.841738589999999953e-01 -2.573474999999999981e-03
-5.437041599999999780e-02 2.649566700000000052e-01 -2.067755099999999888e-02
-3.180826600000000171e-02 2.882924370000000125e-01 -2.038092299999999871e-02
2.996844379999999974e-01 -1.102721079999999937e-01 5.139712000000000273e-03
1.899487970000000026e-01 1.180164880000000027e-01 7.662785799999999314e-02
9.201486999999999861e-02 2.174548950000000092e-01 8.024957300000000460e-02
1.538253450000000022e-01 1.750079280000000070e-01 8.271072299999999988e-02
-3.787355900000000108e-02 6.280286100000000149e-02 3.441520900000000216e-02
1.382321599999999928e-02 -2.439245199999999850e-02 3.406751100000000171e-02
3.079531879999999888e-01 -1.550862249999999942e-01 5.031950000000000311e-03
2.939432630000000102e-01 -1.014259089999999947e-01 1.090509199999999991e-02
-7.125181599999999560e-02 3.413877719999999782e-01 -5.220160000000000381e-04
-3.258671800000000063e-02 3.067256600000000111e-01 -1.528721799999999999e-02
-5.170984700000000323e-02 3.334720780000000051e-01 -4.399919999999999873e-03
2.461274370000000045e-01 -1.485265299999999900e-01 -4.689963000000000118e-03
-9.447215600000000157e-02 2.853590930000000081e-01 -9.420088000000000072e-03
-3.152357499999999813e-02 3.859576399999999768e-02 3.355155700000000268e-02
2.898960190000000048e-01 -9.542418599999999418e-02 1.863845600000000116e-02
2.096414020000000045e-01 2.051560599999999873e-02 5.579221399999999970e-02
1.622137559999999867e-01 1.516857110000000008e-01 8.285726999999999676e-02
-1.086623129999999965e-01 3.300515649999999912e-01 -2.534291000000000148e-03
1.930372710000000103e-01 -8.738693000000000502e-03 4.792611199999999988e-02
-6.021151200000000175e-02 3.386418669999999853e-01 -6.146091000000000228e-03
1.305796110000000121e-01 1.995031039999999867e-01 8.226606699999999828e-02
1.806043750000000114e-01 -2.401424500000000004e-02 4.953198200000000218e-02
-9.913919499999999940e-02 2.914237700000000264e-01 -8.033181000000000349e-03
9.676458000000000628e-03 2.025113930000000118e-01 5.562061399999999878e-02
-3.531912400000000035e-02 1.079278959999999954e-01 4.101266399999999729e-02
-7.594204300000000074e-02 2.708464999999999900e-01 -1.111686800000000024e-02
2.128686929999999977e-01 8.271532800000000463e-02 7.789765599999999568e-02
-2.162160000000000048e-04 1.952917939999999908e-01 5.269136700000000284e-02
8.358009999999999485e-04 -1.140421900000000016e-02 3.336955500000000213e-02
-1.025243730000000020e-01 3.371589179999999741e-01 -2.311090000000000128e-04
2.157314830000000017e-01 7.228385199999999566e-02 7.275324399999999470e-02
2.524688599999999963e-02 -3.099470699999999981e-02 3.682577900000000293e-02
2.490267230000000054e-01 -9.276974500000000068e-02 -9.354111000000000023e-03
1.810513709999999887e-01 1.289848409999999890e-01 8.340729400000000682e-02
-4.163070099999999912e-02 2.660835189999999906e-01 -1.928993700000000006e-02
2.769997759999999754e-01 -8.885369299999999748e-02 -1.973870999999999872e-03
-5.408937600000000151e-02 2.592594089999999962e-01 -1.134924300000000018e-02
-8.270052199999999853e-02 2.751927319999999955e-01 -1.055260899999999925e-02
1.156146609999999936e-01 2.082787120000000047e-01 8.309871400000000408e-02
1.083311760000000012e-01 2.110428030000000010e-01 8.824440699999999693e-02
2.814524910000000268e-01 -1.820186370000000109e-01 5.491857999999999636e-03
-2.825470000000000065e-02 1.456050409999999906e-01 5.069703099999999657e-02
2.632569009999999876e-01 -1.727581420000000034e-01 1.596855000000000106e-03
1.113615040000000000e-01 -4.637331100000000039e-02 5.018058899999999767e-02
5.911372699999999786e-02 -4.142839899999999770e-02 4.371925599999999801e-02
-2.849213800000000019e-02 3.029164329999999850e-01 -9.931999999999999856e-03
2.389476010000000095e-01 -1.121111719999999951e-01 -8.327348999999999515e-03
-2.993054399999999990e-02 2.814584620000000204e-01 -1.713717199999999913e-02
7.980960700000000463e-02 -4.443939899999999749e-02 4.770321599999999967e-02
1.563131339999999925e-01 -3.959765099999999760e-02 5.102319100000000246e-02
4.467855200000000332e-02 -3.873845000000000066e-02 4.430512699999999970e-02
3.133508900000000347e-02 2.124490500000000004e-01 6.138127200000000061e-02
-2.790103400000000164e-02 2.945874629999999939e-01 -1.423815099999999924e-02
2.862130809999999803e-01 -9.328149700000000488e-02 5.043108999999999613e-03
-9.472613900000000087e-02 3.391427810000000043e-01 3.089892999999999806e-03
2.405713180000000062e-01 -1.015829729999999931e-01 -6.780172999999999582e-03
-1.022952760000000044e-01 2.996249409999999780e-01 4.696920000000000153e-04
-3.829128600000000077e-02 6.628171200000000651e-02 4.082701300000000227e-02
2.874895729999999983e-01 -1.814977630000000064e-01 6.771962999999999767e-03
2.016492059999999975e-01 3.353290000000000090e-03 5.522879299999999825e-02
3.077833289999999944e-01 -1.408331290000000013e-01 9.888799999999999674e-03
-3.538635600000000075e-02 3.173769100000000121e-01 -4.320885000000000004e-03
-3.863931400000000099e-02 8.376107100000000638e-02 4.233414499999999664e-02
-2.356938199999999983e-02 2.428697800000000073e-02 3.582490700000000305e-02
-7.815014400000000472e-02 3.420649530000000049e-01 -7.560599999999999407e-05
-6.290487100000000109e-02 3.380355389999999960e-01 2.372144999999999983e-03
-3.757233599999999785e-02 9.886372799999999794e-02 4.454379399999999767e-02
-4.797311099999999884e-02 2.614929320000000113e-01 -1.612097900000000056e-02
3.003422130000000245e-01 -1.629538680000000017e-01 1.385226200000000060e-02
-8.282303700000000213e-02 3.398041390000000050e-01 6.271536000000000298e-03
2.051326739999999871e-01 1.005319130000000005e-01 8.288105799999999357e-02
-3.242444600000000260e-02 2.694047840000000082e-01 -1.540309800000000048e-02
2.991966160000000263e-01 -1.714569159999999870e-01 7.965322999999999848e-03
2.135721630000000093e-01 3.103097900000000020e-02 6.387056600000000361e-02
-2.894748299999999955e-02 3.450431999999999805e-02 3.991862699999999820e-02
-3.661918900000000338e-02 5.543609299999999879e-02 3.946967299999999679e-02
-1.073162909999999942e-01 3.208082039999999857e-01 4.157784999999999780e-03
2.757348130000000230e-01 -1.761705510000000086e-01 1.256019899999999932e-02
9.697844299999999751e-02 -4.610319699999999854e-02 5.156575699999999679e-02
1.783387379999999967e-01 1.404417149999999948e-01 9.814385700000000101e-02
-6.176234099999999838e-02 2.617471929999999891e-01 -1.163068299999999930e-02
2.936795919999999893e-01 -1.766549420000000092e-01 8.815747000000000513e-03
2.082948540000000015e-01 1.589252199999999920e-02 6.352939000000000502e-02
-2.561825200000000108e-02 2.847195969999999909e-01 -1.172482799999999964e-02
1.702307220000000010e-01 -3.318763699999999900e-02 5.393103500000000217e-02
1.665381300000000064e-01 1.492583959999999876e-01 8.945795600000000514e-02
1.787720150000000063e-01 1.354621209999999909e-01 9.020858199999999549e-02
-6.960007399999999789e-02 2.660021000000000191e-01 -8.499342000000000008e-03
-1.069943399999999933e-01 3.123198169999999996e-01 3.860886000000000005e-03
2.419867769999999862e-01 -1.387543230000000127e-01 -2.240751999999999935e-03
3.337964200000000103e-02 -3.517039300000000118e-02 4.648322500000000301e-02
-9.883891499999999941e-02 2.977353629999999751e-01 6.698357999999999743e-03
1.590651459999999906e-01 1.703997050000000124e-01 9.821778200000000347e-02
-1.797773999999999900e-02 1.705714100000000136e-02 4.104179599999999845e-02
2.172742049999999980e-01 5.074023999999999895e-02 7.431082399999999755e-02
2.662323939999999833e-01 -8.346405199999999691e-02 -2.296872000000000150e-03
2.159138320000000000e-01 4.021707800000000332e-02 7.305107600000000645e-02
7.372264000000000594e-02 -4.555810999999999888e-02 5.392532399999999670e-02
-8.371134099999999467e-02 2.760331779999999902e-01 -4.655094000000000246e-03
4.187841800000000059e-02 2.152894959999999969e-01 7.106629500000000155e-02
-8.984462599999999688e-02 2.818000110000000169e-01 -4.049231999999999831e-03
1.479296009999999939e-01 -4.249311900000000281e-02 5.438279099999999977e-02
-2.429224599999999998e-02 2.921663420000000233e-01 -8.488897999999999930e-03
1.472222250000000121e-01 1.844554800000000050e-01 9.731445099999999626e-02
1.389694049999999903e-01 -4.516346999999999723e-02 5.786251299999999737e-02
1.821430320000000103e-01 -2.341972000000000151e-02 5.900871600000000272e-02
2.595334240000000126e-01 -8.636855100000000174e-02 -7.652904000000000304e-03
2.568853460000000144e-01 -1.620155570000000045e-01 9.277640999999999666e-03
-3.196430599999999789e-02 4.193195499999999992e-02 4.637412300000000320e-02
-2.819192200000000120e-02 3.076527789999999873e-01 -4.442919999999999942e-04
1.916998119999999972e-01 -1.204930000000000063e-02 6.050886199999999659e-02
-2.563794399999999932e-02 2.752120239999999995e-01 -1.065676599999999981e-02
5.853047499999999848e-02 2.173314679999999999e-01 7.605409800000000053e-02
-9.250122099999999459e-02 2.864401950000000086e-01 3.733259999999999964e-04
2.013551279999999943e-01 1.305664999999999907e-03 6.427806199999999692e-02
1.973858810000000130e-01 1.135880789999999946e-01 8.950635599999999525e-02
7.908400100000000099e-02 2.186304259999999888e-01 8.094956300000000216e-02
-3.866364299999999754e-02 7.360102899999999837e-02 4.672256899999999852e-02
1.890031249999999940e-01 1.243888779999999944e-01 9.222906100000000107e-02
-3.948910099999999868e-02 9.665011599999999425e-02 5.413360400000000183e-02
-3.988172100000000192e-02 2.574737289999999845e-01 -1.221531000000000006e-02
2.666997500000000132e-01 -1.693694189999999933e-01 1.449114800000000057e-02
2.896842020000000018e-01 -1.731806120000000115e-01 1.561813100000000037e-02
2.385153750000000017e-01 -1.300739300000000043e-01 2.764172999999999977e-03
1.737320900000000057e-02 2.069406299999999865e-01 6.510405900000000579e-02
1.613371739999999999e-01 -3.848576699999999712e-02 5.955949499999999702e-02
-7.524996800000000041e-02 2.699801110000000226e-01 2.216712999999999930e-03
3.050979620000000003e-01 -1.264912679999999900e-01 1.395642000000000063e-02
-3.600094300000000053e-02 1.163582670000000013e-01 5.177693099999999826e-02
3.015435060000000167e-01 -1.558698910000000104e-01 1.704889799999999983e-02
-4.625033800000000195e-02 2.556831920000000036e-01 -9.821171999999999541e-03
-1.023098580000000035e-01 3.316898609999999747e-01 6.885141000000000004e-03
-3.318366600000000055e-02 1.289256049999999987e-01 5.486469000000000068e-02
-2.022832199999999997e-02 2.802111560000000168e-01 -3.545252999999999946e-03
-1.726502999999999892e-03 1.933610709999999955e-01 6.206359999999999655e-02
-1.571473300000000156e-02 1.767283610000000005e-01 6.043251699999999810e-02
1.625906229999999897e-01 1.606096330000000016e-01 9.237513299999999816e-02
-9.697985000000000633e-02 2.925035429999999770e-01 1.390114000000000020e-03
-5.484813699999999820e-02 3.331633399999999745e-01 5.857532999999999837e-03
1.266013840000000112e-01 -4.677535099999999973e-02 5.758757099999999712e-02
1.504877010000000015e-01 -4.277027800000000185e-02 6.304872300000000096e-02
-7.067683600000000677e-02 2.661691959999999968e-01 6.471139999999999575e-04
-2.288035500000000153e-02 2.937891280000000105e-01 -3.923425999999999823e-03
-3.601799199999999868e-02 5.430355299999999746e-02 4.550347500000000156e-02
1.219930629999999988e-01 2.048472869999999890e-01 9.419022500000000242e-02
2.620783420000000197e-01 -1.663415940000000093e-01 1.262068099999999991e-02
-3.731293599999999794e-02 3.187328730000000276e-01 6.285480000000000407e-03
1.804776199999999844e-02 -2.757632100000000086e-02 4.899901699999999888e-02
-2.876594700000000004e-02 2.644685050000000204e-01 -8.328824999999999770e-03
-1.015815209999999941e-01 3.058811009999999886e-01 1.004292799999999958e-02
2.786194249999999761e-01 -8.365789799999999443e-02 9.735502000000000045e-03
3.019230250000000115e-01 -1.426846439999999994e-01 2.347768299999999919e-02
2.176346929999999902e-01 6.163178700000000038e-02 7.612257599999999735e-02
2.997768230000000256e-01 -1.137705420000000023e-01 1.846951000000000148e-02
-2.930934500000000054e-02 1.445909720000000120e-01 5.970190100000000166e-02
2.392730359999999945e-01 -9.109965999999999897e-02 -3.543541999999999786e-03
-5.729380000000000497e-04 -8.638599999999999751e-03 4.471601299999999890e-02
5.118368400000000012e-02 2.159247559999999955e-01 8.078488100000000283e-02
-9.540951100000000240e-02 3.344530339999999824e-01 1.185108300000000010e-02
-5.534619699999999975e-02 2.582617460000000142e-01 -4.904936000000000365e-03
-6.379786499999999527e-02 2.623147780000000262e-01 -2.431036000000000134e-03
3.009464370000000111e-01 -1.283542229999999895e-01 2.546619899999999839e-02
-7.381515800000000571e-02 3.381998199999999843e-01 9.752600000000000158e-03
-2.550156599999999982e-02 3.024351599999999807e-01 3.780725999999999878e-03
2.022642890000000138e-01 1.084214149999999932e-01 9.742409100000000433e-02
2.821581200000000123e-01 -1.744849980000000023e-01 1.646467700000000048e-02
5.751074899999999990e-02 -4.323358100000000009e-02 5.307875599999999777e-02
-2.135398000000000157e-02 2.903158809999999979e-01 -4.289499999999999910e-04
-9.406275999999999873e-03 5.974873999999999810e-03 4.670910400000000129e-02
2.984287429999999963e-01 -1.358960740000000056e-01 3.110356900000000105e-02
-4.655821699999999896e-02 3.258621179999999784e-01 1.058112899999999988e-02
2.663968709999999795e-01 -7.818413600000000130e-02 5.899615000000000414e-03
2.484845860000000073e-01 -8.239953599999999545e-02 -3.459399000000000154e-03
-2.244431100000000151e-02 1.644380960000000058e-01 6.693053300000000039e-02
-3.844071599999999977e-02 1.095886400000000011e-01 5.762848200000000171e-02
-3.970432799999999707e-02 8.452577599999999691e-02 5.288188399999999706e-02
-6.457865100000000080e-02 3.358026709999999970e-01 9.838975999999999278e-03
1.712896650000000076e-01 1.491853350000000022e-01 9.946984300000000223e-02
2.938052349999999979e-01 -1.666847320000000021e-01 1.888064799999999988e-02
2.860982590000000214e-01 -8.735468500000000136e-02 1.930166399999999963e-02
2.540593620000000108e-01 -7.787951199999999796e-02 7.415790000000000229e-04
-8.805850599999999473e-02 2.851057799999999753e-01 7.426804999999999865e-03
1.726627109999999965e-01 -3.216543499999999917e-02 6.320302899999999391e-02
9.503870999999999847e-02 2.166360270000000088e-01 9.989267400000000074e-02
-4.064588200000000123e-02 2.506835130000000245e-01 -2.856899999999999891e-03
3.133072099999999888e-02 2.119363320000000050e-01 7.453743899999999700e-02
1.086460000000000030e-02 2.027929330000000085e-01 7.109084799999999815e-02
2.531558429999999915e-01 -1.579256519999999997e-01 5.707003000000000423e-03
-6.104880900000000249e-02 2.592230810000000218e-01 3.512026000000000123e-03
1.187743339999999953e-01 -4.820527499999999882e-02 6.467144599999999355e-02
6.942121800000000675e-02 2.180459040000000126e-01 8.348163399999999901e-02
-8.758621599999999452e-02 3.365105469999999932e-01 1.295634199999999916e-02
5.851379000000000302e-03 -1.683221799999999949e-02 5.026469599999999760e-02
-1.014690919999999968e-01 3.134436970000000211e-01 1.495973700000000073e-02
-8.262717599999999663e-02 2.779812930000000182e-01 4.767869999999999574e-03
2.178594239999999960e-01 6.419550100000000203e-02 8.781321899999999792e-02
-4.764729799999999765e-02 2.526929560000000241e-01 -1.529832000000000067e-03
1.535437030000000036e-01 1.777250390000000013e-01 1.027988509999999966e-01
1.836178189999999877e-01 1.391557180000000116e-01 1.102431999999999995e-01
-3.087941500000000034e-02 2.550859999999999794e-01 -1.980720999999999957e-03
1.311438299999999890e-01 1.991652849999999975e-01 1.025345119999999943e-01
2.945625709999999953e-01 -1.036989249999999974e-01 2.381184899999999952e-02
2.099542319999999906e-01 9.190946599999999522e-02 9.252618999999999427e-02
1.403235230000000056e-01 1.922141589999999955e-01 1.134554499999999994e-01
-5.520111999999999762e-03 1.886089950000000015e-01 6.938062200000000290e-02
1.400669790000000081e-01 1.919285789999999881e-01 9.907271600000000511e-02
-9.799090600000000262e-02 3.278570299999999937e-01 1.615211199999999972e-02
2.083645229999999959e-01 1.525825800000000024e-02 7.521385399999999666e-02
2.475044889999999942e-01 -1.466889700000000019e-01 1.072508599999999999e-02
-2.114470499999999975e-02 2.695531899999999981e-01 -1.126943999999999949e-03
3.010902610000000257e-01 -1.495423499999999906e-01 2.085806899999999992e-02
9.125506099999999843e-02 -4.793820399999999815e-02 6.025383000000000128e-02
-3.460100399999999771e-02 5.056717899999999682e-02 5.235114899999999960e-02
-2.623585599999999837e-02 3.069524599999999895e-02 4.744819799999999699e-02
1.071237280000000014e-01 -4.848822500000000285e-02 6.329121699999999684e-02
1.788011650000000119e-01 -2.696241300000000105e-02 6.847824700000000597e-02
2.432691949999999936e-01 -1.386476700000000006e-01 1.524291399999999977e-02
1.317899529999999875e-01 -4.680474099999999693e-02 6.671289699999999323e-02
1.977822840000000026e-01 -4.902896000000000337e-03 6.988899799999999385e-02
4.449456999999999718e-02 -4.038665599999999994e-02 5.619061200000000089e-02
-5.551109900000000125e-02 2.551554549999999755e-01 4.928619999999999876e-03
2.751912750000000130e-01 -7.639981399999999645e-02 1.866432700000000139e-02
1.665941549999999938e-01 1.589012380000000002e-01 1.035866200000000042e-01
2.899183359999999987e-01 -9.577698199999999662e-02 3.121324199999999868e-02
3.034891500000000061e-02 -3.438625700000000340e-02 5.476951399999999831e-02
-8.044504199999999439e-02 3.351946619999999766e-01 1.633920000000000164e-02
-3.889796899999999752e-02 7.501072300000000137e-02 5.846554500000000071e-02
-1.975160000000000110e-02 2.904126929999999995e-01 6.536061999999999601e-03
2.978832220000000031e-01 -1.165499079999999937e-01 2.769436600000000151e-02
2.136793610000000121e-01 2.966278300000000159e-02 8.132721800000000667e-02
1.651983029999999908e-01 -3.697373899999999852e-02 6.899676100000000367e-02
1.956586730000000052e-01 1.213720509999999947e-01 1.084906860000000028e-01
1.166223650000000056e-01 2.088588570000000089e-01 1.042598170000000046e-01
-9.579622200000000032e-02 2.989492469999999735e-01 1.468454400000000076e-02
8.674217800000000311e-02 2.177395030000000009e-01 9.373395299999999486e-02
-1.963483300000000084e-02 2.048387600000000155e-02 5.518644699999999959e-02
-2.790370799999999929e-02 3.033806270000000138e-01 1.037355000000000048e-02
1.896524699999999897e-01 -1.480018100000000079e-02 7.226661600000000574e-02
-2.495380999999999988e-02 2.548914310000000016e-01 7.208940999999999960e-03
-1.868527700000000014e-02 2.655920119999999884e-01 7.277976000000000237e-03
5.801719999999999794e-02 -4.446894900000000067e-02 6.198110300000000267e-02
1.027948169999999967e-01 2.142190049999999901e-01 9.829656200000000399e-02
-9.879620299999999911e-02 3.164813380000000009e-01 2.011308300000000035e-02
-6.809128999999999876e-02 2.627979429999999783e-01 8.103687000000000043e-03
2.153858640000000102e-01 7.646698899999999910e-02 9.107657199999999453e-02
2.034415029999999958e-01 4.553427999999999989e-03 7.593223999999999807e-02
9.571701500000000251e-02 -4.936517199999999883e-02 6.938515500000000391e-02
1.403360600000000125e-01 -4.536586000000000091e-02 6.943076700000000434e-02
2.342000929999999981e-01 -1.167342080000000060e-01 2.928202999999999882e-03
7.548922800000000544e-02 -4.778896400000000322e-02 6.350088099999999514e-02
1.287184289999999953e-01 2.014941470000000123e-01 1.144719069999999977e-01
2.704032920000000173e-01 -1.701864349999999970e-01 1.937336900000000139e-02
-4.017887199999999742e-02 8.826245800000000197e-02 6.207298800000000255e-02
-4.196707599999999899e-02 3.179245529999999986e-01 1.708006399999999897e-02
-1.724470599999999854e-02 2.811211350000000220e-01 5.104093999999999992e-03
-4.464265099999999847e-02 2.464982619999999958e-01 6.230969000000000264e-03
2.861660360000000125e-01 -8.166107100000000174e-02 3.375455200000000017e-02
2.843269959999999985e-01 -1.691787529999999873e-01 2.237004700000000054e-02
-7.471155100000000104e-02 2.704771759999999858e-01 1.033494700000000058e-02
2.885090779999999744e-01 -8.804862300000000641e-02 3.557568900000000062e-02
2.536632520000000057e-01 -1.532819370000000070e-01 2.297652999999999848e-02
-9.187756499999999438e-02 2.933859229999999929e-01 1.452757600000000038e-02
-3.602084500000000272e-02 1.259612220000000116e-01 6.590245499999999867e-02
-5.928934899999999814e-02 2.541472459999999933e-01 1.295636099999999957e-02
-5.967347299999999771e-02 3.314028949999999751e-01 1.625470199999999935e-02
2.312411530000000048e-01 -1.023201499999999986e-01 5.004152000000000426e-03
2.365441120000000008e-01 -8.264817000000000691e-02 1.987687000000000134e-03
2.925485660000000099e-01 -1.069405789999999939e-01 3.439395700000000278e-02
-8.889604500000000686e-02 3.340393050000000086e-01 1.646144000000000079e-02
2.727192569999999927e-01 -1.664239530000000133e-01 2.711139900000000130e-02
2.528005340000000212e-01 -7.220477499999999882e-02 7.582842999999999702e-03
1.609894209999999937e-01 1.704412700000000058e-01 1.132944129999999966e-01
1.540127769999999896e-01 -4.128532699999999667e-02 7.338326600000000255e-02
2.920889329999999950e-01 -1.578392130000000060e-01 3.079782699999999984e-02
-3.786809800000000281e-02 2.429934709999999887e-01 1.173430200000000027e-02
-1.197801100000000021e-02 1.805511969999999966e-01 7.522078699999999729e-02
2.353576009999999996e-01 -1.233693440000000058e-01 1.188856699999999919e-02
1.074620700000000068e-01 2.152501599999999959e-01 1.124041499999999943e-01
2.604462410000000228e-01 -6.988885699999999868e-02 1.449846299999999963e-02
-8.606688799999999417e-02 2.884195860000000056e-01 1.710672699999999866e-02
-5.424370299999999728e-02 2.511114280000000254e-01 1.244128199999999969e-02
-9.603996600000000439e-02 3.049306430000000012e-01 2.026350700000000005e-02
1.783656710000000034e-01 -2.604081199999999999e-02 7.883556999999999371e-02
1.455412180000000000e-01 1.875252960000000080e-01 1.210612600000000039e-01
5.965663499999999952e-02 2.174740699999999916e-01 9.342393400000000014e-02
-2.990178400000000070e-02 1.471431950000000044e-01 7.323997100000000093e-02
-5.561539599999999750e-02 3.265893140000000194e-01 2.239712699999999931e-02
1.984045050000000088e-01 -2.680796000000000047e-03 7.927527199999999385e-02
-2.905167800000000092e-02 2.437988199999999994e-01 1.518583599999999943e-02
-9.467006099999999980e-02 3.225718459999999954e-01 2.353608700000000067e-02
-7.952905200000000285e-02 2.783584290000000183e-01 1.359058200000000036e-02
-7.843381999999999438e-03 5.744566999999999903e-03 6.480513599999999930e-02
-1.493063300000000045e-02 2.738122630000000002e-01 9.495636000000000007e-03
-8.983225300000000080e-02 3.326952650000000178e-01 1.920840999999999868e-02
-6.649576999999999571e-02 3.323594970000000037e-01 1.933946300000000118e-02
-7.228313599999999783e-02 3.333200789999999913e-01 1.922734599999999933e-02
-3.933223699999999906e-02 7.428581700000000398e-02 6.719672699999999776e-02
2.139135699999999973e-01 3.353627499999999734e-02 9.393849099999999896e-02
2.448211160000000053e-01 -7.184073900000000068e-02 8.188341000000000022e-03
-3.682182299999999658e-02 6.081014700000000189e-02 6.078989199999999815e-02
-6.628433000000000241e-02 2.612041740000000112e-01 1.582752100000000064e-02
-2.951749299999999882e-02 3.792309199999999852e-02 5.645855100000000265e-02
-7.335281899999999966e-02 2.720070050000000239e-01 1.955751699999999996e-02
-3.336154599999999887e-02 4.922965399999999769e-02 6.521397499999999348e-02
1.153696919999999959e-01 -4.877960900000000155e-02 7.334734599999999383e-02
-3.944315600000000005e-02 1.112008710000000067e-01 6.800151599999999796e-02
-4.078212099999999757e-02 1.007997659999999990e-01 6.908375899999999459e-02
7.929310900000000051e-02 2.193790650000000120e-01 1.020516280000000053e-01
2.858936790000000117e-01 -1.629161329999999908e-01 3.056599499999999858e-02
2.075023579999999979e-01 1.008041340000000036e-01 1.037829539999999967e-01
-4.848364799999999725e-02 2.451559140000000026e-01 1.634870899999999946e-02
6.790183900000000550e-02 -4.740034099999999861e-02 7.268344599999999878e-02
2.880669040000000125e-01 -9.927327099999999627e-02 4.510215499999999794e-02
1.900080379999999902e-01 1.313209800000000038e-01 1.149617400000000067e-01
8.358548000000000366e-03 1.994544010000000034e-01 7.861063399999999868e-02
8.275276900000000380e-02 -4.937009500000000273e-02 7.277592600000000467e-02
2.158032000000000006e-02 2.067259599999999864e-01 8.140465299999999349e-02
1.208758850000000024e-01 2.084505700000000017e-01 1.187511829999999963e-01
-2.334000599999999995e-02 2.962649980000000016e-01 1.505039900000000076e-02
-6.997476900000000610e-02 2.663252039999999821e-01 1.745804100000000053e-02
2.942937769999999786e-01 -1.183200449999999987e-01 3.671660000000000201e-02
2.790130000000000110e-01 -7.465199999999999614e-02 3.799999999999999906e-02
-9.231492700000000495e-02 3.299874489999999883e-01 2.026849299999999854e-02
2.361633190000000104e-01 -7.657339400000000296e-02 8.667766999999999833e-03
2.139151689999999884e-01 8.444080700000000661e-02 1.017300500000000024e-01
3.336636199999999663e-02 2.110805869999999862e-01 8.652109800000000461e-02
-1.549361299999999983e-02 2.822614729999999850e-01 1.203738199999999925e-02
2.167201380000000066e-01 4.704468099999999792e-02 9.625028600000000434e-02
2.759057189999999937e-01 -1.642422070000000012e-01 2.962221900000000172e-02
3.712275699999999928e-02 -3.762429500000000204e-02 6.590940700000000319e-02
-3.379665300000000289e-02 3.057142919999999986e-01 2.362377099999999827e-02
7.020759799999999606e-02 2.187784210000000007e-01 9.795355999999999508e-02
-1.898063200000000075e-02 2.539435440000000210e-01 1.602514500000000106e-02
2.522404209999999924e-01 -6.570407899999999857e-02 1.783295000000000019e-02
1.899160259999999878e-01 -1.412012099999999937e-02 8.027047299999999497e-02
1.753849939999999885e-01 1.506298189999999981e-01 1.144841929999999980e-01
-8.512021399999999960e-02 3.320411699999999966e-01 2.333189700000000075e-02
2.884973040000000100e-01 -1.585219860000000036e-01 3.371874600000000083e-02
2.478860499999999828e-02 -3.125980999999999899e-02 6.425326300000000490e-02
